# .PCD v0.7 - Point Cloud Data file format
VERSION 0.7
FIELDS x y z intensity
SIZE 4 4 4 4
TYPE F F F F
COUNT 1 1 1 1
WIDTH 1346
HEIGHT 1
VIEWPOINT 0 0 0 1 0 0 0
POINTS 1346
DATA ascii
2.3085773 0.95388478 0.6693061 14
2.0848117 0.8580209 -0.60408366 14
2.184288 0.89851546 -0.54528135 11
2.2571654 0.92757285 -0.47435117 13
3.3966157 1.3951323 0.32125604 1
2.3589733 0.96892911 -0.40391383 11
2.451721 1.0060245 -0.32539117 11
2.5680091 1.0526944 -0.24281588 11
2.6798143 1.09798 -0.15177429 8
2.3660347 0.96893525 0.59027153 1
2.7926562 1.1430756 -0.052671362 1
2.3011651 0.94143087 0.66620022 15
2.0858567 0.85037273 -0.60356599 13
2.1783874 0.88720959 -0.54303181 11
2.2638659 0.92156237 -0.47511441 14
2.3568521 0.95845592 -0.40297523 12
2.4570568 0.99820799 -0.32563493 11
2.5641024 1.0411738 -0.24211864 13
2.6910336 1.0916227 -0.15219298 8
2.3495376 0.95261538 0.58532268 10
2.8260825 1.1458297 -0.053229842 1
2.298903 0.93161857 0.66464734 15
2.0923953 0.84453326 -0.60460132 13
2.1777031 0.87852323 -0.54213202 13
2.2743526 0.91659045 -0.47664091 14
3.4060333 1.37198 0.32125604 1
2.3526878 0.94768316 -0.40172374 12
2.4695616 0.99375927 -0.3268536 11
2.5732672 1.0344458 -0.24264158 13
2.4518452 0.98563451 0.51365787 1
2.6853728 1.0789691 -0.15166962 7
2.3617253 0.94845045 0.58757216 11
2.8040845 1.1255286 -0.05274117 1
2.3021407 0.92358875 0.66464734 16
2.0933902 0.83687323 -0.60408366 14
2.1753271 0.86874843 -0.54078233 14
2.2773795 0.90904385 -0.47664091 14
3.4105649 1.3606766 0.32125604 1
2.357816 0.94019705 -0.40203664 13
2.4582622 0.97925514 -0.3249037 10
2.5750105 1.0247221 -0.24246727 11
2.409667 0.95892394 0.50411743 11
2.6854112 1.0681117 -0.15146028 7
2.3686435 0.9416399 0.58847195 12
2.815429 1.1186893 -0.052880794 1
2.3233054 0.92267692 0.66982371 13
2.1054254 0.832748 -0.60667187 12
2.1765344 0.86043292 -0.54033244 11
2.2642615 0.89420098 -0.47320631 12
3.4155288 1.3481679 0.32125604 1
2.3612466 0.93154836 -0.40203664 11
2.4524312 0.96702892 -0.32368499 10
2.5730107 1.0135361 -0.24194433 11
2.4131653 0.95008612 0.50411743 10
2.6800151 1.0546057 -0.1509369 8
2.3611975 0.92867291 0.58577251 14
2.8007076 1.1015348 -0.052531745 1
2.3265114 0.91456312 0.66982371 15
2.0903306 0.81835055 -0.6014955 13
2.1814878 0.8531599 -0.54078233 11
2.2582266 0.88271743 -0.47129822 12
2.3700039 0.92545652 -0.40297523 14
2.4689054 0.96308196 -0.32539117 11
2.4680314 0.96224612 0.4195573 7
2.5709639 1.0023779 -0.24142142 11
2.4182963 0.94236904 0.50449902 11
2.6874025 1.0466934 -0.15114626 11
2.3644247 0.92042559 0.58577251 12
2.7972713 1.0883625 -0.052392125 1
2.3064418 0.89692575 0.6630944 14
2.089572 0.80965239 -0.60046023 13
2.1917224 0.84835315 -0.54258198 11
2.2704494 0.87837058 -0.47320631 13
2.3676922 0.91504103 -0.40203664 20
2.4611404 0.95016998 -0.32392874 10
2.4713757 0.95362455 0.4195573 9
2.5651536 0.98981041 -0.24054985 12
2.417908 0.93250835 0.50373578 12
2.6947663 1.0387448 -0.15135561 11
2.3785343 0.91636962 0.58847195 12
2.7898569 1.0742794 -0.052182697 1
2.2987404 0.88470769 0.65998858 14
2.0977967 0.80442899 -0.60201317 13
2.1764722 0.83372694 -0.53808296 13
2.2771688 0.87184435 -0.47396958 12
2.3542669 0.90041912 -0.39922079 12
2.529176 0.96681076 0.3324596 5
2.4644425 0.94157255 -0.32392874 10
2.4802258 0.94710541 0.4204959 9
2.5723157 0.98227113 -0.24089848 12
2.4119771 0.92056286 0.50182766 11
2.6871793 1.0250602 -0.15072757 10
2.3798976 0.90736645 0.58802205 11
2.8122759 1.0716556 -0.052531745 1
2.3072312 0.87874037 0.66154152 14
2.1005921 0.7971009 -0.60201317 14
2.179369 0.82612503 -0.53808296 13
2.2783623 0.86319405 -0.47358796 12
2.3666325 0.89569342 -0.40078515 13
2.5195389 0.95305949 0.33075345 7
2.4621437 0.93085879 -0.32319754 10
2.4909074 0.94123673 0.42174736 9
2.5757282 0.97328794 -0.24089848 12
2.420686 0.91421825 0.50297254 12
2.6795299 1.0114412 -0.15009953 10
2.3648171 0.89217526 0.58352304 12
2.816 1.0618317 -0.052531745 1
2.3139 0.87204319 0.66257679 13
2.1033616 0.78976405 -0.60201317 17
2.1804152 0.81782758 -0.537633 13
2.2758462 0.85316885 -0.4724431 13
2.6045563 0.97587717 0.24333882 3
2.3734448 0.88881177 -0.40141091 13
2.5228503 0.94425941 0.33075345 7
2.4579408 0.91947585 -0.32222256 12
2.4793756 0.92700112 0.41924441 9
2.586575 0.96708131 -0.24159572 12
2.4201844 0.9043889 0.50220931 10
2.688657 1.0041788 -0.15041354 10
2.3569629 0.87982649 0.5808236 12
2.8009534 1.0450062 -0.052182697 1
2.3169298 0.86396134 0.66257679 14
2.0988615 0.77972645 -0.59994256 17
2.1850834 0.81089002 -0.53808296 15
2.2714477 0.84248906 -0.47091663 13
2.5930021 0.96123868 0.24194433 4
2.3746803 0.87983567 -0.40109801 12
2.535439 0.93889338 0.33197212 8
2.4648592 0.91226792 -0.32271007 11
2.4974177 0.92382395 0.42174736 9
2.5768542 0.95320851 -0.24037553 12
2.4196434 0.89457309 0.50144607 10
2.69964 0.99755591 -0.15083225 10
2.3618476 0.87226951 0.5812735 12
2.8027084 1.0345293 -0.052147791 1
2.3289938 0.85921109 0.66516501 7
2.0997574 0.7717284 -0.59942496 12
2.1952181 0.80594361 -0.53988254 16
2.6625211 0.97698003 0.14863414 1
2.274375 0.83455449 -0.47091663 14
2.5851183 0.94806606 0.24089848 4
2.3647544 0.86678171 -0.39890796 12
2.5405645 0.93072063 0.33221585 7
2.4698923 0.9043414 -0.32295379 11
2.4728014 0.90491724 0.41705433 9
2.5820372 0.94489187 -0.24054985 13
2.4190636 0.88477319 0.50068283 10
2.7031057 0.98812681 -0.15083225 10
2.3630478 0.86335033 0.5808236 11
2.7893968 1.0185672 -0.051833645 1
2.3936808 0.87359542 0.68276465 1
2.1060696 0.76571476 -0.60046023 12
2.1925228 0.79628074 -0.53853279 16
2.6602826 0.96563625 0.14832011 3
2.2865012 0.82996011 -0.47282472 13
2.5996497 0.94311279 0.24194433 4
2.3640516 0.85717452 -0.39828217 11
2.5493965 0.92387623 0.33294708 8
2.4786334 0.89774168 -0.32368499 10
2.4870901 0.90031362 0.41893157 9
2.5797 0.93383789 -0.24002692 14
2.4073679 0.8709808 0.49762988 10
2.6952691 0.97460949 -0.15020421 10
2.3807092 0.86039478 0.58442283 9
2.8155046 1.016977 -0.052252505 1
2.1069119 0.7577042 -0.59994256 13
2.7286525 0.9807632 0.050611977 2
2.1842854 0.78466898 -0.53583342 14
2.6521924 0.95275694 0.14769208 3
2.2838414 0.81998283 -0.47167987 13
2.614177 0.93807185 0.24299021 3
2.3633101 0.84758395 -0.39765644 11
2.5283134 0.90626323 0.32977846 7
2.4705389 0.88506895 -0.32222256 11
2.4937806 0.8933953 0.4195573 7
2.5810678 0.92415625 -0.23985259 14
2.417788 0.86521763 0.49915636 10
2.6779678 0.95779711 -0.14905281 10
2.400213 0.85798335 0.58847195 1
2.7962654 0.99955678 -0.051833645 1
2.1095438 0.75034553 -0.59994256 14
2.73189 0.97170842 0.050611977 4
2.1942198 0.78003275 -0.537633 11
2.6536205 0.94282401 0.14758742 3
2.2755888 0.8080644 -0.46939012 14
2.6136806 0.9276076 0.24264158 5
2.3735542 0.84238559 -0.39890796 12
2.5238216 0.89521891 0.32880351 7
2.4659767 0.87421769 -0.32124761 11
2.4782648 0.8780871 0.4164286 7
2.5880344 0.91647047 -0.24020122 12
2.4243453 0.85850513 0.49991959 6
2.694309 0.95357656 -0.14978553 10
2.8072793 0.99245536 -0.051973268 1
2.1065533 0.7414223 -0.59838963 15
2.7409246 0.96415645 0.050716694 5
2.1969295 0.77236813 -0.537633 12
2.6587789 0.9342193 0.14769208 3
2.2819605 0.80181605 -0.47015342 18
2.6017039 0.91365319 0.24124709 3
2.3764803 0.83409458 -0.39890796 12
2.5419161 0.89166206 0.33075345 7
2.46714 0.86494696 -0.32100388 11
2.4813149 0.86943036 0.4164286 7
2.5872986 0.90656608 -0.23985259 13
2.5273845 0.88507879 0.52052695 1
2.6995065 0.94482487 -0.14989018 11
2.8069503 0.98133206 -0.05190346 1
2.1018307 0.73152393 -0.59631914 15
2.7197204 0.94604146 0.050262932 4
2.2032933 0.765975 -0.53853279 12
2.6752305 0.92952073 0.14842479 3
2.2791822 0.7919119 -0.46900854 13
2.5935845 0.90064383 0.24020122 3
2.3775113 0.82514685 -0.39859506 12
2.5412621 0.88148189 0.33026594 7
2.4813979 0.86023045 -0.32246631 11
2.4974 0.86529106 0.41861868 3
2.5791516 0.89361608 -0.23880674 13
2.6990135 0.93408895 -0.14968085 12
2.8065791 0.97022057 -0.051833645 1
2.1043713 0.72418314 -0.59631914 15
2.7400246 0.94239748 0.050577074 4
2.1930537 0.75384444 -0.53538352 13
2.6595697 0.91368806 0.14737807 2
2.2763622 0.78203815 -0.46786368 12
2.600481 0.89288086 0.24054985 3
2.3691666 0.81299508 -0.39671785 12
2.5443239 0.8726052 0.33026594 7
2.4768734 0.84899056 -0.32149133 11
2.586025 0.88589841 -0.23915535 13
2.7003672 0.92401719 -0.14957617 10
2.8080568 0.95977032 -0.051798742 4
2.1160312 0.71994382 -0.59890729 14
2.7641232 0.93990803 0.050961025 4
2.1846004 0.74242383 -0.53268409 12
2.6551783 0.90182871 0.14695938 2
2.2920909 0.77850646 -0.47053501 13
2.6035821 0.88379735 0.24054985 3
2.37199 0.8047207 -0.39671785 16
2.5623939 0.86881852 0.33221585 2
2.472302 0.83779037 -0.32051641 11
2.5966501 0.87942314 -0.23985259 16
2.6865492 0.90882462 -0.14863414 10
2.8057063 0.94804269 -0.051694028 8
2.1167004 0.71193665 -0.59838963 15
2.7351642 0.91942257 0.050367646 4
2.1945682 0.73727548 -0.53448373 12
2.665884 0.8950972 0.14737807 2
2.2854891 0.76737577 -0.46862692 11
2.6066511 0.8747043 0.24054985 6
2.3785303 0.79769289 -0.39734361 12
2.4695642 0.82726431 -0.31978518 10
2.5883677 0.86655921 -0.23880674 13
2.6972816 0.90197551 -0.14905281 8
2.8052053 0.93697548 -0.05162422 5
2.1118398 0.7021063 -0.59631914 15
2.7364593 0.90923822 0.05033274 4
2.2008274 0.73083824 -0.53538352 12
2.6633053 0.88389921 0.14706406 3
2.273247 0.75444651 -0.46557397 12
2.6815498 0.8894347 0.24717368 1
2.3831751 0.79000622 -0.39765644 11
2.4743216 0.81926215 -0.32002893 11
2.5819194 0.85438848 -0.23793517 15
2.7023101 0.89318079 -0.14915749 10
2.787571 0.92028248 -0.051240265 4
2.1051009 0.69171542 -0.59373093 13
2.722518 0.89406466 0.050018597 4
2.2052166 0.72375965 -0.53583342 12
2.6738122 0.8775543 0.14748274 5
2.2833283 0.74895483 -0.46710047 11
3.4911656 1.144461 0.32143039 1
2.3784094 0.77922302 -0.39640498 11
2.4807975 0.8122884 -0.32051641 13
2.5848858 0.84537125 -0.23793517 15
2.7054117 0.8837418 -0.14915749 10
2.8020129 0.91475761 -0.051449694 4
2.1165698 0.68771511 -0.59631914 15
2.7216635 0.88379824 0.049948789 4
2.2020438 0.7146377 -0.53448373 12
2.769794 0.89889181 0.15261166 1
2.287667 0.74198401 -0.46748206 12
3.4267099 1.1107631 0.31515515 1
2.3734636 0.7688958 -0.39515349 11
2.4891438 0.80589104 -0.32124761 10
2.583884 0.83556801 -0.23758654 15
2.6950233 0.87046903 -0.14842479 8
2.8088372 0.90668857 -0.051519506 1
2.1188385 0.68069297 -0.59631914 18
2.7302911 0.8766011 0.0500535 8
2.1914127 0.70316422 -0.5313344 14
2.293854 0.73559332 -0.46824533 12
3.4986789 1.1212832 0.32143039 1
2.3760002 0.76102138 -0.39515349 11
2.4768157 0.79235905 -0.3192977 11
2.5923336 0.8288157 -0.23810948 18
2.6864793 0.85788232 -0.14779675 10
2.8062694 0.89505601 -0.051414788 1
2.1193602 0.67270869 -0.59580147 15
2.1994267 0.69727653 -0.53268409 14
2.2851779 0.7240243 -0.46595559 13
3.5025718 1.1090628 0.32143039 1
2.3824091 0.75391436 -0.39577925 12
2.477674 0.78310966 -0.31905395 12
2.6009107 0.8215614 -0.23863243 18
2.6894577 0.84849876 -0.14779675 10
2.8074694 0.88465458 -0.051379886 1
2.1161656 0.66357189 -0.59424853 13
2.2055666 0.6907602 -0.53358394 14
2.2783237 0.71311039 -0.46404752 12
3.5064216 1.0968305 0.32143039 1
2.3925676 0.74795169 -0.39703071 12
2.4822872 0.77504832 -0.3192977 12
2.588547 0.80773026 -0.23723793 17
2.6981237 0.84088767 -0.14811078 10
2.7914469 0.86890519 -0.051030833 1
2.1166236 0.65561002 -0.59373093 14
2.2116878 0.68420839 -0.53448373 19
2.2826746 0.70573246 -0.46442911 12
3.5102286 1.0845848 0.32143039 1
2.3838396 0.73609799 -0.39515349 10
2.4830804 0.76579434 -0.31905395 12
2.583735 0.79634148 -0.23654069 16
2.7048595 0.83264148 -0.14832011 10
2.7887292 0.85739219 -0.050926123 1
2.1152048 0.6470868 -0.59269565 17
2.2066073 0.67420775 -0.53268409 15
2.2888796 0.69890732 -0.46519238 13
3.5139933 1.0723243 0.32143039 1
2.3712783 0.7231642 -0.39265057 11
2.4857385 0.75712138 -0.31905395 12
2.5864992 0.7873171 -0.23654069 16
2.7020171 0.82145113 -0.1480061 13
2.8012722 0.85055804 -0.051100649 1
2.1266975 0.64249235 -0.59528387 15
2.1996193 0.66368598 -0.53043455 15
2.293185 0.6914795 -0.46557397 15
3.5177147 1.0600525 0.32143039 1
2.3889198 0.71943885 -0.39515349 11
2.4845643 0.74729699 -0.31856647 11
2.5911391 0.77885902 -0.23671499 15
2.6876514 0.8068465 -0.14706406 11
2.8003931 0.83962512 -0.051030833 1
2.1252239 0.63396174 -0.59424853 15
2.2019227 0.65600324 -0.53043455 15
2.2842946 0.68011087 -0.46328428 14
3.521394 1.047766 0.32143039 1
2.3952038 0.71222103 -0.39577925 11
2.4795461 0.73635852 -0.31759155 12
2.6033924 0.77264315 -0.23758654 17
2.6904519 0.79745924 -0.14706406 11
2.8052239 0.83041441 -0.051065743 1
2.1163054 0.62326431 -0.59114271 15
2.2041991 0.64831358 -0.53043455 15
2.2847712 0.67157876 -0.46290264 13
3.475328 1.0208668 0.31689829 1
2.3863029 0.70051789 -0.39390203 13
2.4840062 0.72825652 -0.31783527 11
2.5907774 0.75906986 -0.23619205 16
2.7047203 0.79142755 -0.14769208 10
2.7965891 0.81725109 -0.050856311 1
2.114758 0.61479515 -0.5901075 15
2.2139349 0.64278841 -0.53223419 15
2.2889874 0.66414583 -0.46328428 14
3.5286224 1.0231581 0.32143039 1
2.3868363 0.6916334 -0.39358914 16
2.4903467 0.72068673 -0.31832278 11
2.5934112 0.75002104 -0.23619205 17
2.7113039 0.78309184 -0.14790143 10
2.791599 0.80575383 -0.050716694 1
2.1187479 0.60794175 -0.59062505 17
2.2066877 0.6327579 -0.52998471 15
2.2912915 0.65615219 -0.46328428 14
3.4363978 0.98342496 0.31271479 1
2.3796208 0.68099755 -0.39202482 10
2.5003576 0.71460581 -0.3192977 12
2.5940981 0.74041623 -0.23601775 18
2.7081242 0.77245229 -0.14758742 8
2.8174732 0.80257767 -0.051135551 1
2.1281872 0.60301948 -0.59269565 17
2.2070076 0.62452114 -0.52953476 15
2.2972329 0.64961934 -0.46404752 15
3.4664826 0.97960854 0.31515515 1
2.3819833 0.67268747 -0.39202482 10
2.4913735 0.70263982 -0.31783527 18
2.5965385 0.73181158 -0.23601775 18
2.693501 0.75812346 -0.14664535 10
2.8258936 0.79485649 -0.051240265 1
2.1358604 0.59714687 -0.59424853 17
2.2090666 0.61719835 -0.52953476 15
2.2881405 0.63843006 -0.46175778 13
3.4890728 0.97285432 0.31689829 1
2.3956182 0.66796756 -0.39390203 10
2.4898651 0.69330984 -0.31734779 12
2.6067555 0.72487789 -0.23671499 18
2.6998489 0.75025743 -0.14685471 10
2.8132362 0.78070879 -0.050961025 1
2.1267579 0.5866062 -0.59114271 19
2.2131932 0.60961455 -0.52998471 14
2.2846763 0.62887651 -0.46061292 15
3.5423946 0.97440726 0.32143039 1
2.3961456 0.6586585 -0.39358914 10
2.4923897 0.68417865 -0.31734779 12
2.593899 0.71155697 -0.23532049 15
2.7064333 0.74141169 -0.14706406 10
2.8122208 0.76933783 -0.050891217 2
2.5063684 0.68519449 0.69622326 1
2.1213365 0.57714963 -0.58907217 18
2.2153075 0.6018858 -0.52998471 14
2.2830684 0.61986822 -0.45984969 15
3.4304016 0.93073398 0.31097168 1
2.3888972 0.64770621 -0.39202482 10
2.4890141 0.6739186 -0.31661656 12
2.6002135 0.70353955 -0.23566914 18
2.7128608 0.73300242 -0.14727339 10
2.8110282 0.75847399 -0.050821409 2
2.1289356 0.5712437 -0.59062505 19
2.2136302 0.59313989 -0.52908486 16
2.296597 0.61494243 -0.46213943 14
3.4528763 0.92390478 0.31271479 1
2.3835104 0.63732177 -0.39077336 10
2.5008242 0.66822368 -0.31783527 12
2.6045785 0.69497174 -0.23584343 16
2.6999633 0.71941495 -0.14643602 10
2.8154604 0.74966192 -0.050856311 2
2.1326857 0.56467557 -0.59114271 19
2.209933 0.58430207 -0.52773517 16
2.3005216 0.6078251 -0.46252102 16
3.4790382 0.91855192 0.31480655 1
2.3932507 0.63143045 -0.39202482 11
2.4934287 0.65739715 -0.31661656 12
2.6030152 0.68531686 -0.23549481 16
2.700403 0.70994908 -0.14633135 13
2.8314695 0.74387884 -0.051100649 2
2.1326773 0.55711138 -0.59062505 15
2.2137442 0.57746166 -0.52818507 17
2.2949257 0.59821153 -0.46099457 15
3.4589281 0.90098393 0.31271479 1
2.3991551 0.62448531 -0.39265057 11
2.4899447 0.64719063 -0.31588537 12
2.6072021 0.6771813 -0.23566914 15
2.7066088 0.70199364 -0.1465407 11
2.8146906 0.72897762 -0.0507516 2
2.1308677 0.54869956 -0.58958983 15
2.2157459 0.56973231 -0.52818507 23
2.2836895 0.58677649 -0.45832324 15
3.442754 0.88394874 0.31097168 1
2.3974929 0.61512661 -0.39202482 11
2.4921887 0.63849449 -0.31588537 12
2.5979686 0.66511327 -0.23462325 15
2.7032378 0.69105685 -0.14622667 10
2.8017175 0.71519047 -0.05047236 2
2.1177897 0.53745794 -0.58544868 16
2.2328336 0.56582344 -0.5317843 15
2.2933359 0.58073062 -0.45984969 15
3.4458184 0.87192667 0.31097168 1
2.38622 0.60336375 -0.38983473 12
2.4944022 0.62979174 -0.31588537 11
2.5906155 0.6536029 -0.2337517 15
2.7075703 0.68210506 -0.14633135 11
2.8041971 0.70540559 -0.05047236 2
2.130898 0.53287363 -0.58855456 16
2.2196696 0.55424958 -0.52818507 14
2.302969 0.57462245 -0.46137619 20
3.4681735 0.8647123 0.31271479 1
2.3883114 0.59503108 -0.38983473 12
2.5004385 0.62203866 -0.31637284 11
2.5967481 0.64551783 -0.23410031 15
2.6944275 0.66879982 -0.14549398 11
2.8299332 0.70138741 -0.050891217 2
2.1383724 0.52681798 -0.5901075 17
2.2083445 0.54323906 -0.52503574 15
2.3011477 0.56564212 -0.46061292 14
3.4711707 0.85260159 0.31271479 1
2.3922925 0.587161 -0.39014763 13
2.4910262 0.6104722 -0.31491041 10
2.606838 0.63788956 -0.23479758 16
2.7045057 0.6612885 -0.14591266 11
2.8187661 0.68818408 -0.050646886 2
2.136534 0.51806682 -0.58907217 17
2.217803 0.5373621 -0.52683532 15
2.2917562 0.5544349 -0.45832324 13
3.4742725 0.83987248 0.31271479 1
2.3944285 0.57838935 -0.39014763 13
2.4912121 0.60130793 -0.31466666 11
2.6129227 0.62972033 -0.23514619 17
2.7069116 0.65137082 -0.14591266 11
2.8250396 0.67927617 -0.050716694 4
2.1308134 0.50881052 -0.58700162 18
2.2216535 0.52968228 -0.52728528 16
2.2822189 0.54370129 -0.45603353 13
3.5004418 0.8332774 0.31480655 1
2.40412 0.57185555 -0.39139909 11
2.5010214 0.5944438 -0.31564164 13
2.5995965 0.61691463 -0.2337517 13
2.7169425 0.64376056 -0.14633135 11
2.8137724 0.66618514 -0.05047236 4
2.1249666 0.49997219 -0.58493102 14
2.2309859 0.52409518 -0.52908486 15
2.2935658 0.53837383 -0.45794162 14
3.4799085 0.81620604 0.31271479 1
2.3944633 0.56117606 -0.38952184 13
2.5049117 0.58659875 -0.31588537 14
2.5996876 0.60783756 -0.23357739 14
2.713227 0.63338566 -0.14601734 10
2.8120711 0.65594268 -0.050402552 4
2.5305154 0.58980024 0.69622326 1
2.1322589 0.49423191 -0.58648396 14
2.2175233 0.51317859 -0.52548569 16
2.2991638 0.53165025 -0.45870483 14
3.4825962 0.80466074 0.31271479 1
2.3924618 0.55234325 -0.38889611 13
2.5050097 0.57740605 -0.31564164 11
2.6036308 0.5996598 -0.2337517 16
2.6997411 0.62080336 -0.14517996 10
2.8299358 0.6497016 -0.050681788 4
2.1396215 0.4880743 -0.58803689 15
2.2212009 0.50586808 -0.52593553 15
2.3010056 0.52362078 -0.45870483 14
3.4581845 0.78631562 0.31027445 1
2.3982277 0.54486442 -0.38952184 13
2.4895866 0.56470686 -0.31344795 10
2.6115375 0.5918895 -0.23427464 18
2.6960475 0.61005396 -0.14486594 11
2.8224332 0.63761663 -0.050507262 5
2.1394274 0.48017907 -0.58751929 14
2.2172487 0.49683261 -0.52458584 17
2.2989879 0.51472712 -0.45794162 14
3.4881284 0.7803297 0.31271479 1
2.4001153 0.53648913 -0.38952184 12
2.4896049 0.55558133 -0.31320426 10
2.6077538 0.5814684 -0.2337517 13
2.7098577 0.60324383 -0.14549398 13
2.816834 0.6260246 -0.050367646 5
2.1335447 0.47104266 -0.58544868 13
2.232291 0.49202666 -0.52773517 20
2.2911842 0.50458825 -0.45603353 13
3.4908311 0.76814824 0.31271479 1
2.4039023 0.52853256 -0.38983473 12
2.499285 0.54858935 -0.31417918 10
2.5980906 0.56980044 -0.23270583 15
2.7197514 0.59548891 -0.14591266 13
2.8190019 0.61618882 -0.050367646 5
2.1332879 0.46318179 -0.58493102 15
2.2378037 0.48505762 -0.52863497 15
2.3006065 0.49824902 -0.45755997 13
3.4662287 0.75005966 0.31027445 1
2.4018712 0.5193038 -0.389209 12
2.4992447 0.53944242 -0.31393546 10
2.6000636 0.5607298 -0.23270583 14
2.7257185 0.58683157 -0.14612199 11
2.8171196 0.60599673 -0.050297838 6
2.1367812 0.45613724 -0.58544868 20
2.2298706 0.47560102 -0.52638549 17
2.3080921 0.49144354 -0.45870483 15
3.4961088 0.74375892 0.31271479 1
2.3919871 0.50886905 -0.38733178 14
2.5068445 0.53239042 -0.31466666 10
2.602005 0.55164975 -0.23270583 15
2.7120178 0.5744803 -0.14528462 11
2.8290002 0.59822726 -0.05047236 6
2.1401727 0.44944537 -0.58596635 19
2.2238882 0.46621442 -0.52458584 19
2.3097937 0.48338318 -0.45870483 15
3.5258579 0.73787564 0.31515515 1
2.39955 0.50172865 -0.38827038 13
2.5028584 0.52241921 -0.31393546 10
2.6039147 0.54256421 -0.23270583 13
2.7004178 0.56168729 -0.14455192 11
2.8349867 0.58916295 -0.050542168 6
2.1493735 0.44315806 -0.58803689 18
2.2293994 0.45884657 -0.52548569 22
2.3019342 0.4729391 -0.45679674 14
3.5012159 0.71933502 0.31271479 1
2.3975024 0.49213663 -0.38764465 13
2.4891987 0.51005501 -0.31198555 10
2.61955 0.53581095 -0.233926 15
2.7044153 0.55218619 -0.1446566 11
2.8292899 0.5771687 -0.050402552 9
2.1396227 0.43297869 -0.58493102 17
2.2253356 0.44951525 -0.52413595 14
2.2997224 0.46412361 -0.45603353 23
3.5038292 0.70649499 0.31271479 1
2.4012265 0.48373663 -0.38795751 15
2.4988363 0.50249171 -0.31296051 10
2.6096842 0.52430964 -0.23288015 14
2.7082844 0.54313457 -0.14476126 10
2.8195229 0.56493253 -0.050193124 9
2.1373312 0.42475474 -0.5838958 18
2.2382824 0.4444108 -0.52683532 15
2.3109574 0.45800206 -0.45794162 13
3.5043192 0.69387549 0.3125405 1
2.3989418 0.47500432 -0.38733178 14
2.5004888 0.49420303 -0.31296051 10
2.5978158 0.51249689 -0.23165996 12
2.721828 0.53646851 -0.1453893 10
2.8214777 0.55508637 -0.050193124 9
2.1425202 0.41840467 -0.58493102 17
2.2264309 0.43398461 -0.52368605 15
2.3066821 0.44920963 -0.45679674 13
3.5066013 0.68224996 0.3125405 1
2.3967073 0.46587312 -0.38670605 14
2.5158396 0.48811889 -0.31466666 11
2.6073246 0.50539649 -0.2323572 13
2.7119184 0.52468854 -0.14476126 11
2.8311563 0.5472455 -0.05033274 9
2.1420705 0.41056016 -0.58441341 15
2.2259443 0.42623201 -0.52323616 15
2.306308 0.44078702 -0.45641515 14
3.4893911 0.66626775 0.31079736 1
2.4040601 0.45903358 -0.38764465 11
2.5154948 0.47940108 -0.31442294 18
2.6051583 0.49554807 -0.23200859 12
2.7038329 0.5138275 -0.14423791 11
2.8310845 0.5369876 -0.050297838 11
2.1529129 0.40524074 -0.58700162 15
2.2312489 0.4191795 -0.52413595 15
2.3019683 0.43204951 -0.45527029 13
3.5111639 0.65836543 0.3125405 1
2.413414 0.45209441 -0.38889611 11
2.4995911 0.46733451 -0.31222928 11
2.6284165 0.49047086 -0.233926 15
2.7134638 0.50585097 -0.1446566 11
2.8211462 0.52490652 -0.050088406 11
2.150584 0.39664689 -0.58596635 15
2.2384479 0.41244826 -0.52548569 15
2.2977438 0.42254475 -0.45412543 13
3.4704423 0.63757086 0.30870563 1
2.4111691 0.44253197 -0.38827038 12
2.4933968 0.45717499 -0.31125432 10
2.6085546 0.47734728 -0.23200859 12
2.721194 0.49697798 -0.14497061 11
2.8229613 0.51505488 -0.050088406 11
2.5562246 0.46592855 0.69622326 1
2.1367471 0.38638684 -0.58182526 16
2.2456975 0.40527889 -0.52683532 16
2.3050013 0.41556597 -0.45527029 13
3.4177427 0.61556667 0.3038249 1
2.4049225 0.43271399 -0.38701892 11
2.5106866 0.45083931 -0.31320426 11
2.6043215 0.46718401 -0.23148565 13
2.7307758 0.48888463 -0.1453893 16
2.8247418 0.50519842 -0.050088406 11
2.1418874 0.37960055 -0.58286053 15
2.2355161 0.39579171 -0.52413595 15
2.3083708 0.40785953 -0.45565188 12
3.490505 0.6160993 0.31010011 1
2.4063442 0.4247371 -0.38701892 11
2.5219429 0.44423345 -0.31442294 11
2.607899 0.45843464 -0.23165996 13
2.7166448 0.47706333 -0.14455192 11
2.8304276 0.4960247 -0.050158214 11
2.1545544 0.37448105 -0.58596635 15
2.2234435 0.38565406 -0.52098668 15
2.3232517 0.40254918 -0.45832324 12
3.4925289 0.60452002 0.31010011 1
2.4117053 0.41700727 -0.38764465 11
2.5078287 0.43272653 -0.31247303 11
2.6152947 0.45079979 -0.23218289 13
2.708452 0.46588397 -0.14402856 11
2.8438818 0.48866841 -0.050367646 12
2.5608869 0.43958211 0.69622326 1
2.1558485 0.3669574 -0.58596635 15
2.2343161 0.37991142 -0.52323616 14
2.3072224 0.39148062 -0.45488867 11
3.5024757 0.59365606 0.31079736 1
2.4208651 0.41032726 -0.38889611 10
2.5072923 0.4240773 -0.31222928 12
2.6188169 0.44200012 -0.2323572 12
2.7119515 0.45723248 -0.14413324 10
2.8199344 0.47442606 -0.049913883 13
2.1494312 0.35853431 -0.5838958 15
2.24524 0.37371123 -0.52548569 14
2.2968881 0.3818948 -0.45259899 13
3.425806 0.56898129 0.3038249 1
2.418385 0.40122944 -0.38827038 10
2.5087574 0.41532198 -0.31222928 11
2.6124814 0.43155649 -0.23165996 12
2.7174723 0.44841278 -0.14434259 11
2.8255196 0.46522877 -0.049983691 13
2.4685817 0.40601557 0.67034137 1
2.1431041 0.34941083 -0.58182526 19
2.2465308 0.36587101 -0.52548569 14
2.3060236 0.37473384 -0.45412543 14
3.5065346 0.56919134 0.31079736 1
2.4120398 0.39109877 -0.38701892 12
2.5180304 0.40783229 -0.31320426 11
2.6139717 0.42243391 -0.23165996 12
2.7210693 0.43876833 -0.14444725 11
2.8271265 0.45536229 -0.049983691 13
2.1462188 0.34223154 -0.58234286 15
2.2401583 0.35641029 -0.52368605 17
2.3170125 0.36822212 -0.45603353 12
3.4848869 0.55320007 0.30870563 1
2.409488 0.38205737 -0.38639316 11
2.5253904 0.39953172 -0.31393546 12
2.6213338 0.41424161 -0.23218289 13
2.7146926 0.42802367 -0.14402856 11
2.8306737 0.44580403 -0.050018597 15
2.1531262 0.33563185 -0.5838958 13
2.2355514 0.34807965 -0.5223363 16
2.3144038 0.35952973 -0.45527029 15
3.5301111 0.5477522 0.3125405 1
2.4068379 0.37345871 -0.38576743 11
2.5070841 0.38811737 -0.31149808 12
2.6168571 0.40417591 -0.23165996 12
2.7200449 0.41962731 -0.14423791 11
2.4806983 0.38225961 0.57947391 1
2.8322127 0.43591967 -0.050018597 15
2.3638606 0.36341104 0.64083594 4
2.1599569 0.32936305 -0.58544868 14
2.2367527 0.34027341 -0.5223363 13
2.3097601 0.35096854 -0.45412543 15
2.4198453 0.3668308 -0.38764465 12
2.5103862 0.37966102 -0.3117418 12
2.6280332 0.39698306 -0.23253153 13
2.5081372 0.37842545 0.49305046 1
2.721493 0.41013062 -0.14423791 11
2.374104 0.35735399 0.55427945 4
2.8277845 0.42513943 -0.049913883 16
2.361294 0.35458416 0.63980073 18
2.1458073 0.31954443 -0.58130759 14
2.2417824 0.33303684 -0.52323616 15
2.3109713 0.34290326 -0.45412543 11
2.4211111 0.35838223 -0.38764465 13
2.5175879 0.37176514 -0.31247303 18
2.4721086 0.3646085 0.39577925 1
2.6136343 0.38548198 -0.23113704 13
2.4608858 0.36251447 0.48351002 10
2.7288361 0.40149981 -0.14455192 10
2.4023292 0.35303178 0.56057805 11
2.8134234 0.41294211 -0.049634643 16
2.3491378 0.34437743 0.63617724 19
2.1469095 0.31205267 -0.58130759 14
2.2429311 0.32520998 -0.52323616 15
2.3121538 0.33483484 -0.45412543 11
2.699491 0.3904461 0.23863243 1
2.4145267 0.34879959 -0.38639316 10
2.5797138 0.37220269 0.32002893 3
2.5267291 0.36410791 -0.31344795 18
2.516381 0.36216843 0.40266237 7
2.614964 0.3763569 -0.23113704 18
2.4543626 0.35280409 0.48198354 12
2.730221 0.39197254 -0.14455192 10
2.4131918 0.34602743 0.56282753 15
2.8207867 0.40396866 -0.049739357 17
2.3465006 0.33562875 0.63514197 19
2.1518114 0.3050985 -0.58234286 14
2.2421229 0.31710628 -0.52278626 16
2.8042758 0.39611173 0.14842479 1
2.3133087 0.32676128 -0.45412543 11
2.6219234 0.36988726 0.23165996 3
2.4118176 0.33981848 -0.38576743 10
2.5495458 0.35876903 0.31612909 6
2.5161903 0.35362747 -0.31198555 12
2.5156736 0.35310835 0.40234947 10
2.6083691 0.36611941 -0.23043977 13
2.4458582 0.34287238 0.48007545 12
2.7236609 0.38133147 -0.14413324 13
2.4008753 0.33571318 0.55967826 12
2.8221793 0.3941204 -0.049739357 17
2.3514845 0.32796901 0.63617724 18
2.1586041 0.29837942 -0.5838958 15
2.7712913 0.38257703 0.048831832 4
2.2354944 0.30821267 -0.52098668 16
2.6790116 0.36888492 0.14172579 2
2.318325 0.31922039 -0.45488867 11
2.6192508 0.36019045 0.23131134 4
2.4129891 0.33139697 -0.38576743 10
2.5586493 0.35094684 0.31710407 7
2.5075755 0.34349564 -0.31076685 12
2.5208056 0.34485972 0.40297523 9
2.6155536 0.35782176 -0.23096271 12
2.4528759 0.33512932 0.4812203 12
2.7210174 0.37128231 -0.14392389 12
2.3981709 0.32680362 0.55877846 12
2.8275008 0.38480532 -0.049809169 15
2.3641005 0.32132033 0.63928306 22
2.1711199 0.29239014 -0.58700162 15
2.7646825 0.37183416 0.048692215 4
2.2365568 0.30040687 -0.52098668 16
2.6901803 0.36085942 0.14224915 3
2.3155334 0.31060448 -0.45412543 11
2.6323407 0.3526319 0.2323572 4
2.418047 0.32349524 -0.38639316 10
2.5598588 0.34201387 0.31710407 6
2.4989212 0.33342713 -0.30954817 10
2.5122037 0.33475313 0.40141091 9
2.6345611 0.35105735 -0.23253153 14
2.4618149 0.32760274 0.48274681 12
2.722297 0.36178121 -0.14392389 10
2.4108877 0.31996813 0.56147784 18
2.824862 0.37440962 -0.049739357 12
2.3709531 0.31382596 0.64083594 21
2.1568038 0.28279993 -0.58286053 18
2.7778599 0.36374101 0.048901644 4
2.2414563 0.29310381 -0.52188647 16
2.6834404 0.35089985 0.14183044 3
2.31271 0.3020108 -0.4533622 11
2.6177504 0.34137931 0.23096271 4
2.4230795 0.31556347 -0.38701892 10
2.5728481 0.33461159 0.31856647 6
2.5118241 0.32667512 -0.31101057 11
2.5132999 0.32641983 0.40141091 10
2.6199639 0.33980933 -0.23113704 14
2.4726784 0.32026762 0.4846549 12
2.7235434 0.35227567 -0.14392389 10
2.4138684 0.31222087 0.56192774 13
2.826088 0.36503923 -0.049739357 13
2.3624008 0.30472663 0.63824779 19
2.1462319 0.27417678 -0.57975465 17
2.7711165 0.35351434 0.048762023 4
2.2559476 0.28739357 -0.52503574 15
2.7004392 0.34401903 0.14266783 3
2.3195419 0.2950826 -0.45450708 11
2.6287503 0.33395389 0.23183426 6
2.4162736 0.30653256 -0.38576743 10
2.5916679 0.32832253 0.32076016 7
2.5188017 0.31909156 -0.3117418 11
2.5261269 0.31957284 0.4032881 10
2.6171231 0.33062044 -0.23078841 14
2.4678836 0.31132832 0.48351002 10
2.7286596 0.34374195 -0.14413324 11
2.4110236 0.30372787 0.56102794 13
2.8372033 0.35691407 -0.049913883 34
2.3576481 0.29616794 0.63669485 12
2.1547976 0.26801232 -0.58182526 17
2.7643354 0.34333768 0.048622403 6
2.243351 0.27823138 -0.52188647 17
2.7135167 0.33606279 0.14329587 3
2.3224559 0.28763083 -0.45488867 11
2.6239114 0.32450172 0.23131134 5
2.4172769 0.29851755 -0.38576743 10
2.5789511 0.3180263 0.31905395 5
2.5159595 0.30981389 -0.31125432 12
2.5291877 0.31099349 0.40360096 9
2.6202385 0.32172507 -0.23096271 13
2.4533134 0.30122924 0.48045707 9
2.7297843 0.33469334 -0.14413324 10
2.4082003 0.29483682 0.56012809 11
2.8364468 0.34676477 -0.049878977 33
2.3567498 0.28770396 0.63617724 20
2.1596014 0.2605761 -0.58286053 18
2.789341 0.33656007 0.049041264 5
2.2346346 0.26923284 -0.51963693 14
2.7047584 0.3253966 0.14277251 3
2.3234942 0.27911717 -0.45488867 11
2.6409087 0.31677881 0.23270583 5
2.414432 0.28918648 -0.3851417 10
2.5682194 0.30760625 0.31759155 3
2.5150547 0.30079326 -0.31101057 12
2.5302579 0.30216241 0.40360096 9
2.6253023 0.31304914 -0.23131134 14
2.4563506 0.29246804 0.48083872 12
2.7151265 0.3227976 -0.14329587 10
2.4111998 0.28623861 0.56057805 16
2.8535259 0.33874807 -0.050158214 44
2.3558214 0.27924758 0.63565958 21
2.1700916 0.25415912 -0.58544868 19
2.7786388 0.3249414 0.048831832 4
2.2356064 0.26104116 -0.51963693 15
2.693975 0.31456268 0.14214447 2
2.3127544 0.26964027 -0.45259899 11
2.6419983 0.30756018 0.23270583 5
2.4272001 0.28212461 -0.38701892 10
2.5653861 0.29773283 0.31710407 6
2.5141683 0.29134515 -0.31076685 11
2.5097122 0.29082876 0.40015942 10
2.6422124 0.30571449 -0.23270583 17
2.467108 0.28501788 0.48274681 12
2.7162366 0.31331995 -0.14329587 10
2.3928251 0.27558988 0.55607903 13
2.8387985 0.32695419 -0.049878977 57
2.3644586 0.27190471 0.63773018 22
2.1575289 0.24505684 -0.58182526 25
2.7797012 0.31572455 0.048831832 4
2.2461414 0.25472459 -0.52188647 15
2.6950567 0.30515763 0.14214447 3
2.3097796 0.26112497 -0.45183572 11
2.6192982 0.29565367 0.2306141 5
2.4261591 0.27385303 -0.38670605 10
2.5762222 0.29033488 0.31832278 7
2.5190661 0.2834495 -0.31125432 11
2.5146384 0.28250688 0.40078515 10
2.6175239 0.29360172 -0.23043977 15
2.4621863 0.27617785 0.48160195 13
2.7311547 0.30586612 -0.14402856 11
2.3995357 0.2683036 0.55742872 15
2.8438976 0.31748593 -0.049948789 48
2.3519535 0.26215202 0.6341067 22
2.1525691 0.23726633 -0.58027232 19
2.7787986 0.30580017 0.048796929 4
2.2489538 0.24709584 -0.5223363 19
2.6920831 0.2957831 0.14193512 3
2.3125844 0.25367856 -0.45221734 13
2.6044199 0.28523016 0.2292196 4
2.4192455 0.26452419 -0.3854546 10
2.57722 0.28134218 0.31832278 7
2.5239868 0.27508408 -0.3117418 12
2.519489 0.27459386 0.40141091 10
2.6165025 0.28470635 -0.23026547 14
2.4592321 0.26715803 0.48083872 13
2.7381625 0.29697609 -0.14434259 10
2.4082072 0.26076451 0.5592283 13
2.8330064 0.30676243 -0.049739357 16
2.3528099 0.25435057 0.6341067 19
2.1591468 0.23036529 -0.58182526 18
2.7678671 0.2953113 0.048587501 5
2.2458854 0.23922324 -0.52143651 17
2.7010434 0.28722823 0.1423538 3
2.3193128 0.24622576 -0.4533622 19
2.6232314 0.2780278 0.23078841 6
2.4142165 0.25587496 -0.38451597 12
2.5722165 0.27216694 0.31759155 6
2.5387042 0.26817298 -0.31344795 13
2.520432 0.26579806 0.40141091 10
2.6194615 0.27577922 -0.23043977 13
2.4503419 0.25797415 0.47893062 10
2.719269 0.28580722 -0.14329587 10
2.4226253 0.25420117 0.56237763 8
2.8420146 0.29770538 -0.049878977 12
2.1599379 0.22282751 -0.58182526 18
2.7729089 0.28557491 0.048657309 4
2.235116 0.22979367 -0.51873708 15
2.6861835 0.27569577 0.14151645 3
2.3299232 0.23913108 -0.45527029 14
2.6261678 0.26907292 0.23096271 4
2.4171031 0.24722508 -0.38482881 15
2.5751712 0.26293966 0.31783527 4
2.5297954 0.2578592 -0.31222928 20
2.5410419 0.25855747 0.40453959 1
2.6263552 0.26723832 -0.23096271 14
2.5274456 0.25672957 0.49381369 1
2.7163243 0.27543503 -0.14308652 10
2.4468069 0.24767457 0.5677765 1
2.8391078 0.28688544 -0.049809169 15
2.4891167 0.25107962 0.67034137 1
2.1645474 0.21566908 -0.58286053 19
2.7798586 0.2764869 0.048762023 4
2.2475395 0.22314593 -0.52143651 15
2.730855 0.27065039 0.14381923 1
2.3190217 0.22983429 -0.45298058 12
3.3606939 0.33248037 0.29545796 1
2.4238489 0.23936921 -0.38576743 11
2.5247538 0.24844436 -0.31149808 14
2.6332204 0.25865385 -0.23148565 14
2.7351589 0.26770312 -0.14402856 13
2.8301406 0.27600214 -0.049634643 28
2.1614408 0.20774287 -0.58182526 17
2.2405455 0.21455558 -0.51963693 13
2.3100379 0.22080444 -0.45107248 14
3.4054685 0.32491118 0.29929283 1
2.4246695 0.23090631 -0.38576743 11
2.523629 0.23944283 -0.31125432 12
2.622206 0.24833283 -0.23043977 13
2.7281232 0.25740415 -0.14360988 11
2.8270586 0.26623979 -0.049564835 30
2.1563821 0.19966188 -0.58027232 19
2.2490065 0.20784223 -0.52143651 14
2.3166597 0.2132789 -0.45221734 12
3.4581664 0.31776094 0.3038249 1
2.425422 0.22286502 -0.38576743 11
2.5263863 0.23125312 -0.31149808 12
2.6190884 0.23881806 -0.23009115 13
2.740896 0.24944128 -0.14423791 11
2.825979 0.25618991 -0.049529929 33
2.3953702 0.21673149 0.64445943 1
2.1589565 0.19268213 -0.58078998 19
2.2477772 0.19981839 -0.52098668 13
2.327132 0.20646335 -0.45412543 13
3.514771 0.31121087 0.30870563 1
2.4143789 0.21335457 -0.38389024 11
2.5291555 0.22260632 -0.3117418 11
2.6238356 0.23047949 -0.23043977 13
2.7258329 0.23847896 -0.14340053 11
2.8328326 0.24684522 -0.049634643 39
2.3961122 0.20836814 0.64445943 1
2.159616 0.18514422 -0.58078998 19
2.2445776 0.1916388 -0.52008682 14
2.32197 0.19783826 -0.45298058 12
3.4622345 0.29438499 0.30399922 1
2.4190457 0.20525891 -0.38451597 11
3.661304 0.31002244 0.45116034 1
2.5279391 0.21361117 -0.31149808 13
2.6266098 0.22148591 -0.2306141 13
2.7246583 0.22879729 -0.14329587 11
2.8416481 0.23762108 -0.049774267 35
2.3968248 0.20000452 0.64445943 1
2.1679506 0.17823824 -0.58286053 18
2.2471752 0.18396315 -0.52053672 13
2.3206899 0.18957253 -0.45259899 13
3.53473 0.28812405 0.31027445 1
2.4236848 0.19713324 -0.3851417 10
2.5266905 0.20462479 -0.31125432 12
2.641268 0.21343866 -0.23183426 13
2.7294219 0.2196047 -0.1435052 11
2.8305004 0.22674295 -0.049564835 42
2.160856 0.17006274 -0.58078998 17
2.2536321 0.17657398 -0.52188647 13
2.3154657 0.18101101 -0.45145413 12
3.4642053 0.27020687 0.30399922 1
2.4322357 0.18928653 -0.38639316 11
3.663379 0.28445417 0.45116034 1
2.5234313 0.19549763 -0.31076685 12
2.6280921 0.2031446 -0.2306141 13
2.7341545 0.21038163 -0.14371455 12
2.8232992 0.21624964 -0.049425215 42
2.4944749 0.19062558 0.67034137 1
2.1537304 0.16194098 -0.57871938 18
2.2561779 0.16885109 -0.5223363 13
2.3160832 0.172929 -0.45145413 12
3.4651275 0.25811198 0.30399922 1
2.4171224 0.17962351 -0.38389024 11
3.6643496 0.27166563 0.45116034 1
2.5359764 0.18756585 -0.31222928 12
2.6208367 0.19338243 -0.22991684 12
2.7468235 0.20171461 -0.14434259 11
2.8340089 0.20712259 -0.049599741 44
2.1619904 0.15497401 -0.58078998 18
2.2509222 0.16055906 -0.52098668 12
2.3225479 0.16526073 -0.45259899 12
3.5216544 0.24996367 0.30887994 1
2.4137936 0.17090656 -0.38326448 11
2.5366156 0.17871183 -0.31222928 13
2.6314337 0.18493178 -0.23078841 13
2.725595 0.1905919 -0.14319119 11
2.8347147 0.19722939 -0.049599741 44
2.1625183 0.14742573 -0.58078998 18
2.2417474 0.15204094 -0.51873708 11
2.3231106 0.15715191 -0.45259899 12
3.5384083 0.23874304 0.31027445 1
2.4262011 0.16327497 -0.3851417 11
3.6661568 0.24607702 0.45116034 1
2.5273206 0.16919385 -0.31101057 14
2.636039 0.17601 -0.23113704 15
2.7282364 0.18120958 -0.14329587 11
2.8393764 0.18759607 -0.049669549 41
2.1688032 0.1402507 -0.58234286 26
2.2461543 0.14446551 -0.51963693 11
2.3216856 0.14891659 -0.45221734 12
3.4676404 0.22181229 0.30399922 1
2.4267564 0.15480432 -0.3851417 10
2.5239336 0.16012001 -0.31052312 13
2.6286833 0.16630353 -0.23043977 13
2.7408123 0.17243819 -0.14392389 11
2.8360224 0.17743453 -0.049599741 50
2.5932982 0.16179426 0.69622326 1
2.1634948 0.13232492 -0.58078998 20
2.2524803 0.13697836 -0.52098668 17
2.312393 0.14021672 -0.45030925 13
3.3928208 0.20513803 0.29737538 1
2.435169 0.1468084 -0.38639316 13
3.6677854 0.22047642 0.45116034 1
2.5324035 0.15178446 -0.31149808 18
2.6212928 0.15665184 -0.22974254 13
2.7374098 0.16263227 -0.14371455 12
2.8306358 0.16717945 -0.049495026 55
2.1562288 0.12432772 -0.57871938 22
2.258781 0.12944986 -0.5223363 16
2.3207083 0.13259254 -0.45183572 13
3.4691043 0.19759817 0.30399922 1
2.4238336 0.13763578 -0.38451597 13
2.5348995 0.14305496 -0.3117418 21
2.6198342 0.1473895 -0.22956821 15
2.75192 0.15385696 -0.14444725 13
2.8351953 0.15752012 -0.049564835 52
2.1662946 0.11732211 -0.58130759 19
2.2436519 0.12072726 -0.51873708 13
2.3289988 0.12491091 -0.4533622 11
3.5254805 0.18846461 0.30887994 1
2.4183815 0.12885937 -0.38357735 10
2.543313 0.13462469 -0.31271678 13
2.6243117 0.13845415 -0.22991684 12
2.7305005 0.14309949 -0.14329587 11
2.8376992 0.14822228 -0.049599741 61
2.1705499 0.10995556 -0.58234286 21
2.2459862 0.11338402 -0.51918703 14
2.3274601 0.11668263 -0.45298058 12
3.5420361 0.17695329 0.31027445 1
2.4266872 0.1212326 -0.38482881 9
2.5199535 0.12501025 -0.30979189 12
2.6307492 0.12958613 -0.23043977 12
2.6746361 0.13174793 0.52052695 1
2.7349496 0.13423909 -0.1435052 11
2.8362017 0.13821787 -0.049564835 57
2.1689727 0.10266624 -0.58182526 17
2.2502613 0.10572569 -0.52008682 13
2.3219507 0.10868891 -0.45183572 11
3.4709551 0.16186593 0.30399922 1
2.4369617 0.11321887 -0.38639316 11
2.5183916 0.11612231 -0.30954817 12
2.6450968 0.12150078 -0.23165996 14
2.6750798 0.12241019 0.52052695 1
2.7314112 0.1245115 -0.14329587 11
2.8366671 0.12831607 -0.049564835 57
2.169318 0.095093906 -0.58182526 17
2.2564573 0.098125711 -0.52143651 16
2.3223159 0.1005825 -0.45183572 12
3.5113099 0.15146542 0.30748546 1
2.4294477 0.10437412 -0.3851417 11
3.6710472 0.1570722 0.45116034 1
2.5326645 0.10792169 -0.31125432 12
2.6335611 0.11176189 -0.2306141 13
2.7398112 0.11531155 -0.14371455 10
2.8311038 0.1181639 -0.04946012 63
2.4995902 0.10389028 0.67034137 1
2.1561248 0.086975366 -0.57820177 15
2.2587335 0.090325877 -0.52188647 13
2.3265765 0.092631102 -0.45259899 11
3.5436704 0.14047115 0.31027445 1
2.4258499 0.095736697 -0.38451597 11
3.6715732 0.14425592 0.45116034 1
2.5409601 0.099391267 -0.31222928 12
2.6239808 0.10218003 -0.22974254 13
2.7461843 0.10597876 -0.14402856 11
2.8394921 0.1085857 -0.049599741 48
2.1660681 0.07980568 -0.58078998 17
2.2492979 0.082084931 -0.51963693 12
2.3288476 0.08458212 -0.45298058 10
3.5122817 0.12694816 0.30748546 1
2.4222209 0.087125652 -0.38389024 11
2.5274048 0.090025738 -0.31052312 12
2.6322858 0.093301602 -0.23043977 14
2.7385535 0.096111216 -0.14360988 11
2.8458488 0.098883629 -0.049704451 52
2.1701949 0.072372399 -0.58182526 18
2.247623 0.074169107 -0.51918703 13
2.3369775 0.076709419 -0.45450708 10
3.4728768 0.11338601 0.30399922 1
2.4304075 0.078926966 -0.3851417 10
2.5237358 0.081074744 -0.31003565 11
2.6365786 0.084240459 -0.23078841 14
2.7308872 0.08629822 -0.14319119 11
2.8441782 0.088885933 -0.049669549 48
2.178158 0.065027617 -0.5838958 17
2.2478681 0.066322394 -0.51918703 13
2.3293812 0.068321638 -0.45298058 11
3.5290146 0.10289092 0.30887994 1
2.4346175 0.070556574 -0.38576743 11
2.5180504 0.072096072 -0.30930442 11
2.6368566 0.07503587 -0.23078841 14
2.7311718 0.076766998 -0.14319119 11
2.8344767 0.078679174 -0.049495026 57
2.168716 0.057168908 -0.58130759 20
2.2539301 0.058627956 -0.52053672 13
2.3237176 0.060037415 -0.45183572 11
3.5452862 0.090979688 0.31027445 1
2.4387982 0.06215892 -0.38639316 11
2.528209 0.063554756 -0.31052312 12
2.6291351 0.065632723 -0.23009115 14
2.6770568 0.066361532 0.52052695 1
2.7374129 0.067379668 -0.1435052 10
2.8367329 0.068833627 -0.049529929 50
2.1573143 0.049332764 -0.57820177 22
2.261914 0.050935876 -0.5223363 12
2.3317642 0.052100569 -0.4533622 11
3.4738739 0.077014774 0.30399922 1
2.4311008 0.053472307 -0.3851417 11
2.5304 0.054772761 -0.31076685 11
2.6233723 0.056325927 -0.22956821 13
2.7516093 0.058119718 -0.14423791 11
2.8369558 0.058930401 -0.049529929 48
2.1709938 0.042064454 -0.58182526 19
2.252336 0.042854056 -0.52008682 12
2.3280063 0.043887362 -0.45259899 12
3.4741213 0.064887293 0.30399922 1
2.4233725 0.044839036 -0.38389024 11
2.546454 0.046227254 -0.31271678 12
2.6355054 0.047383752 -0.2306141 12
2.7358201 0.048232082 -0.14340053 12
2.8491409 0.049235132 -0.049739357 46
2.1769223 0.034578517 -0.5833782 19
2.2407811 0.034810532 -0.51738745 11
2.3320711 0.035820514 -0.4533622 12
3.5301073 0.053606074 0.30887994 1
2.4353652 0.036558021 -0.38576743 11
3.6740017 0.054508485 0.45116034 1
2.5406454 0.037250206 -0.31198555 14
2.647608 0.03835756 -0.23165996 17
2.7359719 0.038681265 -0.14340053 12
2.8472958 0.03926114 -0.049704451 42
2.1750982 0.026955949 -0.58286053 17
2.2525804 0.027128741 -0.52008682 16
2.3262928 0.02761155 -0.45221734 14
3.530273 0.041284114 0.30887994 1
2.4295523 0.027987877 -0.38482881 14
2.5248799 0.02820462 -0.31003565 14
2.6397567 0.029027114 -0.23096271 12
2.7340927 0.029110014 -0.14329587 10
2.835413 0.029693879 -0.049495026 38
2.1674519 0.019293912 -0.58078998 22
2.2585039 0.019709159 -0.52143651 16
2.3224485 0.01945759 -0.45145413 12
3.4746106 0.028502364 0.30399922 1
2.4375331 0.019995177 -0.38608032 12
3.6742876 0.02950079 0.45116034 1
2.5328999 0.019894531 -0.31101057 12
2.6338646 0.019768162 -0.23043977 12
2.7461574 0.020131672 -0.14392389 10
2.8334994 0.019781543 -0.04946012 41
2.1597764 0.012062517 -0.57871938 18
2.2546616 0.011806533 -0.52053672 13
2.3225002 0.011755323 -0.45145413 13
3.5464113 0.017331198 0.31027445 1
2.4316618 0.011460224 -0.3851417 13
2.5349388 0.011060926 -0.31125432 12
2.6418855 0.011067758 -0.23113704 13
2.7462111 0.010544939 -0.14392389 10
2.8395486 0.01040912 -0.049564835 42
2.1675329 0.0045390241 -0.58078998 17
2.2585857 0.0043365993 -0.52143651 12
2.3303802 0.0036599275 -0.45298058 13
2.4316864 0.0033958065 -0.3851417 13
3.6744032 0.0044899713 0.45116034 1
2.5409169 0.0026602382 -0.31198555 12
2.6399155 0.0018436951 -0.23096271 14
2.7382419 0.0014331749 -0.1435052 10
2.8475664 0.00049782405 -0.049704451 38
2.1752629 -0.003037242 -0.58286053 17
2.2410479 -0.0039113704 -0.51738745 14
2.334305 -0.0044815494 -0.45374379 12
3.5464456 -0.0074276687 0.31027445 1
2.4257565 -0.0055038761 -0.38420308 12
2.5309842 -0.0066261152 -0.31076685 11
2.6438906 -0.0073831542 -0.23131134 13
2.7262449 -0.0085647795 -0.14287716 10
2.8515484 -0.009953822 -0.049774267 35
2.1810346 -0.01065863 -0.58441341 15
2.2488155 -0.011774877 -0.51918703 14
2.3224959 -0.012566036 -0.45145413 13
3.474673 -0.019406438 0.30399922 1
2.433624 -0.014016822 -0.3854546 12
3.6743414 -0.021804238 0.45116034 1
2.5230055 -0.015412354 -0.30979189 12
2.6478336 -0.016637046 -0.23165996 13
2.7421763 -0.018187068 -0.14371455 10
2.8354993 -0.019795839 -0.049495026 35
2.598274 -0.018593177 0.69622326 1
2.171325 -0.018190876 -0.58182526 13
2.2507093 -0.019641643 -0.51963693 15
2.3185117 -0.020638032 -0.4506909 12
3.5463073 -0.032186147 0.31027445 1
2.4355354 -0.022529939 -0.38576743 12
2.5328612 -0.024314471 -0.31101057 12
2.6338131 -0.025743296 -0.23043977 13
2.7460907 -0.027799375 -0.14392389 10
2.839412 -0.029735336 -0.049564835 35
2.5016062 -0.02663438 0.67034137 1
2.1615899 -0.025655473 -0.57923704 14
2.26037 -0.027617006 -0.52188647 14
2.3321671 -0.028901314 -0.4533622 11
3.474453 -0.043663561 0.30399922 1
2.427541 -0.030930739 -0.38451597 13
2.528791 -0.03310369 -0.31052312 11
2.6297228 -0.03488401 -0.23009115 15
2.7479739 -0.03741204 -0.14402856 11
2.8472888 -0.039758231 -0.049704451 35
2.1711452 -0.033349019 -0.58182526 15
2.2583113 -0.035476387 -0.52143651 14
2.332052 -0.037041925 -0.4533622 11
3.4065468 -0.05470372 0.29807264 1
2.4195178 -0.039276004 -0.38326448 13
2.5465236 -0.042226829 -0.31271678 11
2.6355615 -0.044163387 -0.2306141 12
2.7298539 -0.046696588 -0.14308652 11
2.8471327 -0.049696885 -0.049704451 35
2.1710155 -0.040927526 -0.58182526 15
2.2523286 -0.043246921 -0.52008682 16
2.3358343 -0.045258138 -0.45412543 11
3.4740636 -0.067918561 0.30399922 1
2.4272661 -0.047877282 -0.38451597 13
3.6736786 -0.073103927 0.45116034 1
2.5344524 -0.050876554 -0.31125432 12
2.6314073 -0.053282268 -0.23026547 13
2.7376614 -0.05638979 -0.1435052 11
2.8529396 -0.059760559 -0.049809169 33
2.1785848 -0.048678149 -0.5838958 15
2.2541122 -0.051152959 -0.52053672 14
2.3356621 -0.05341145 -0.45412543 11
3.4738054 -0.080044888 0.30399922 1
2.4349835 -0.056533128 -0.38576743 12
2.5302901 -0.059629597 -0.31076685 12
2.6431561 -0.062751003 -0.23131134 12
2.7554183 -0.066378586 -0.14444725 17
2.8427181 -0.069474533 -0.049634643 35
2.4739525 -0.060894139 0.6630944 1
2.1706769 -0.056082953 -0.58182526 15
2.2636602 -0.059276033 -0.52278626 15
2.3138733 -0.060995027 -0.44992763 12
3.5292718 -0.093650043 0.30887994 1
2.4387205 -0.065137945 -0.38639316 11
2.5340352 -0.068568982 -0.31125432 12
2.6409292 -0.071922719 -0.23113704 16
2.7491801 -0.075831167 -0.14413324 10
2.8484552 -0.079564556 -0.049739357 31
2.1627438 -0.063433141 -0.57975465 16
2.2595437 -0.067061692 -0.52188647 14
2.327383 -0.069481678 -0.45259899 12
3.4213829 -0.10273962 0.29946712 1
2.432555 -0.073471375 -0.3854546 12
2.5397468 -0.077152602 -0.31198555 15
2.6366794 -0.081018463 -0.23078841 11
2.7469025 -0.085365102 -0.14402856 8
2.8521729 -0.089134857 -0.049809169 31
2.1702449 -0.070856869 -0.58182526 16
2.2554138 -0.074425705 -0.52098668 14
2.3369505 -0.07752464 -0.45450708 12
3.4727969 -0.11581132 0.30399922 1
2.4342723 -0.081603795 -0.38576743 17
2.5434449 -0.085707985 -0.31247303 13
2.6383874 -0.089829348 -0.23096271 12
2.7446082 -0.094405025 -0.14392389 10
2.8498633 -0.098523423 -0.049774267 31
2.5967734 -0.090227559 0.69622326 1
2.1777203 -0.078331038 -0.5838958 15
2.253207 -0.08183378 -0.52053672 16
2.3425663 -0.085488603 -0.45565188 18
3.4723938 -0.12732689 0.30399922 1
2.4359624 -0.08974842 -0.38608032 12
2.5391626 -0.09443818 -0.31198555 12
2.6460216 -0.099337474 -0.23165996 13
2.7442801 -0.10350595 -0.14392389 10
2.8594935 -0.10885105 -0.049948789 28
2.1812792 -0.086465284 -0.58493102 15
2.2606962 -0.090008549 -0.5223363 18
2.3363523 -0.093837604 -0.45450708 13
3.5435715 -0.14294399 0.31027445 1
2.4395645 -0.098835982 -0.38670605 12
3.6713941 -0.14874206 0.45116034 1
2.5308836 -0.10297812 -0.31101057 12
2.6556122 -0.10898168 -0.23253153 13
2.7398911 -0.11339836 -0.14371455 10
2.8391163 -0.11800147 -0.049599741 31
2.177104 -0.093912341 -0.5838958 18
2.2545106 -0.098039836 -0.52098668 14
2.3301263 -0.10173551 -0.4533622 14
3.543051 -0.15531251 0.31027445 1
2.4451249 -0.10761161 -0.38764465 11
2.528506 -0.11216561 -0.31076685 12
2.6373022 -0.11745305 -0.23096271 12
2.7474594 -0.12331991 -0.14413324 11
2.8366671 -0.12831618 -0.049564835 28
2.1651847 -0.10097133 -0.58078998 17
2.2638876 -0.10636624 -0.52323616 16
2.3336792 -0.11005352 -0.45412543 13
